-93.8942260742,98.1132787069,1.0580253601,
-93.5506591797,97.2772776286,-0.9415766398,
-92.6030680339,101.3376820882,3.0169143677,
-94.5346272786,97.8443171183,3.0169143677,
-95.6262613932,99.5646031698,3.0169143677,
-94.5987752279,101.6979827881,3.0169143677,
-94.1593221029,96.0508066813,1.0173123678,
-95.1115519206,95.6603368123,-0.9822896322,
-93.798828125,93.8153254191,-2.9818916321,
-95.1432902018,96.6178461711,3.0169143677,
-82.1721700033,110.101949056,3.0169143677,
-77.7541300456,114.4250971476,-2.899646759,
-75.1371663411,114.2505391439,-0.9091122945,
-80.37109375,114.5996551514,-0.9233589172,
-79.9350891113,113.5161514282,1.0671755473,
-77.3181254069,113.3415934245,1.0671755473,
-76.1502176921,117.2637812297,-2.9404424032,
-72.0855407715,113.101041158,1.0406265259,
-70.822672526,112.7781321208,-2.9529673258,
-71.2148742676,111.0425974528,-0.976679484,
-76.4126688639,112.5051574707,3.0169143677,
-73.3610432943,111.3556594849,3.0169143677,
-79.9428609212,109.8172403971,3.0169143677,
-71.5814921061,108.4645207723,0.9996083577,
-72.4895833333,107.1566925049,-3.0185470581,
-72.8187764486,107.944887797,-0.9775759379,
-69.701578776,105.6303965251,-3.0823338826,
-65.1077575684,106.4643910726,-3.0586687724,
-73.7276611328,108.7775828044,3.0169143677,
-73.3976745605,105.8488642375,-1.0012410482,
-73.7268676758,106.6370595296,1.039730072,
-74.0201822917,104.6635004679,0.9759432475,
-74.971883138,104.2663319906,-1.0650278727,
-73.6450703939,102.425819397,-3.1059989929,
-70.2345581055,102.0848871867,-3.1059989929,
-74.677520752,106.2378005981,3.0169143677,
-75.3000284831,105.0524368286,3.0169143677,
-75.9155985514,107.8586908976,3.0169143677,
-60.5048014323,103.4421844482,-3.0529874166,
-53.6987508138,109.1106109619,-3.0472564697,
-54.8412882487,104.8927866618,-3.0182037354,
-81.5241495768,103.368367513,3.0169143677,
-82.7413431803,104.9963887533,3.0169143677,
-76.859975179,98.6282628377,-3.1059989929,
-74.0499369303,93.9291737874,-3.0505777995,
-76.3403625488,90.4717127482,-3.0218213399,
-78.8979695638,103.5474014282,-3.0386492411,
-77.9022420247,104.88600413,-2.9712994893,
-75.9206441243,101.4761530558,-3.1059989929,
-76.2517293294,104.6552683512,0.9759432475,
-76.5798746745,105.4413731893,-0.9976781209,
-80.2218424479,102.9949035645,-0.9976781209,
-80.5484822591,103.778137207,1.0432929993,
-79.5527547201,105.1167399089,-0.9303283691,
-78.2303873698,105.6721089681,1.0432929993,
-80.4433085124,105.9615275065,3.0169143677,
-67.1393432617,98.2650197347,-3.0619150798,
-69.0636901855,93.3543650309,-3.0064938863,
-79.0791727702,107.7488505046,3.0169143677,
-78.8071899414,82.2733637492,-2.9579798381,
-81.3964945475,77.3110961914,-2.9164619446,
-74.9987691243,84.3587697347,-2.9664001465,
-74.2545674642,75.0855000814,-1.4402898153,
-72.0687255859,77.6604283651,-0.0619684855,
-75.0333658854,72.8837966919,-2.8643201192,
-79.4507751465,73.4855524699,-2.9100290934,
-70.9848225911,81.3696746826,-2.9397354126,
-69.4206542969,78.3341929118,-1.5008519491,
-89.1046346029,84.0081075033,-2.9238255819,
-87.2568766276,78.4593098958,-2.8949203491,
-73.7923380534,73.1843363444,-0.0014063517,
-71.1221822103,73.9174880981,1.376914978,
-68.936340332,76.4924163818,1.376914978,
-105.8148193359,92.2223052979,-2.815826416,
-104.85546875,93.5814946493,-2.7997105916,
-105.1278686523,89.2254002889,-2.862054189,
-103.2215067546,93.2969182332,1.0472208659,
-101.9311930339,92.8612620036,-0.9224726359,
-103.5606282552,94.1230799357,-0.8762448629,
-100.6189168294,91.0184911092,-2.9220746358,
-102.5171203613,87.9156570435,-2.9220746358,
-107.1132914225,91.6892776489,-0.8461329142,
-107.4487813314,92.5068817139,1.0934486389,
-106.4894307454,93.8660710653,-0.8300170898,
-105.1945902507,94.4076563517,1.0934486389,
-105.1345214844,95.642133077,3.0169143677,
-109.8630371094,95.6425348918,3.0169143677,
-107.2565714518,97.1958058675,3.0169143677,
-102.6060078939,94.5047225952,3.0169143677,
-100.9800008138,93.2517674764,1.0472208659,
-101.3156941732,94.0690663656,3.0169143677,
-102.8850606283,96.5653610229,3.0169143677,
-99.0428263346,95.0021031698,-2.8986434937,
-97.7528889974,96.5021438599,-2.8752123515,
-98.3460489909,91.9515279134,-2.951983134,
-96.0955200195,96.2273763021,1.0173123678,
-95.7116495768,90.6490478516,-2.9818916321,
-96.1272583008,97.1848856608,-0.9289499919,
-100.3645019531,94.4595718384,-0.8990414937,
-100.7001953125,95.2768707275,1.0706520081,
-99.4102579753,96.7769114176,-0.8756103516,
-97.7846272786,97.4596532186,1.0706520081,
-97.8922932943,98.6128997803,3.0169143677,
-100.4124755859,98.7829920451,3.0169143677,
-101.5955505371,83.2834650675,-2.8822657267,
-94.4563700358,85.7028605143,-2.9462979635,
-97.1203918457,81.9826431274,-2.8765805562,
-104.6399332682,79.6356964111,-2.768825531,
-107.7524515788,59.5739809672,-1.0583445231,
-108.7851155599,59.3175824483,0.4074707031,
-106.367594401,58.3887799581,0.311097463,
-106.0154012044,56.9471804301,-1.194471995,
-103.102742513,58.4225934347,-2.700041453,
-101.8571166992,63.2217559814,-2.6602872213,
-105.6938680013,66.3386192322,-2.6205329895,
-107.4002583822,58.1323814392,1.7769126892,
-109.6799214681,56.0382041931,1.7769126892,
-106.1044921875,50.8040428162,-2.5287818909,
-102.0805664063,49.2907066345,-2.6490236918,
-109.0762837728,53.2154706319,-2.4085400899,
-108.2950642904,54.853003184,0.2713432312,
-98.268544515,51.593624115,-2.6944096883,
-98.5985921224,56.2199058533,-2.7397956848,
-110.9269205729,54.2004254659,-1.0685984294,
-107.2215881348,47.3835411072,-2.3631540934,
-106.1004333496,45.9570681254,-1.0232124329,
-104.3063659668,44.8663291931,0.3167292277,
-101.4035949707,44.7794659932,-2.569644928,
-103.969329834,43.4190940857,-1.1094614665,
-110.1933797201,49.7949689229,-2.2429122925,
-107.5574645996,45.6005719503,0.4369710286,
-105.7633972168,44.509833018,1.7769126892,
-103.3742370605,74.8254623413,-2.6782811483,
-106.1468404134,71.728205363,-2.6275456746,
-110.073059082,72.8117345174,-2.5934626261,
-110.5292561849,48.011999766,-0.9029706319,
-108.1441040039,42.3968976339,1.7769126892,
-113.7077738444,43.3979860942,1.7769126892,
-112.0440165202,50.7799237569,0.4369710286,
-114.2988586426,47.922349294,1.7769126892,
-92.205271403,49.1341107686,-2.7315063477,
-91.1638895671,44.8855044047,-2.7379175822,
-94.3808492025,41.779577891,-2.621442159,
-98.8972167969,42.2780316671,-2.5356521606,
-89.4437255859,57.55458196,-2.8044637044,
-88.4923095703,53.0198224386,-2.8139890035,
-93.486735026,58.2951520284,-2.7673670451,
-86.2506306966,60.8482119242,-2.8562571208,
-82.2062886556,60.9844322205,-2.8297309875,
-79.9570414225,59.4324913025,-2.7807172139,
-80.1343688965,56.2443199158,-2.8167686462,
-83.6653951009,52.8042055766,-2.8510856628,
-86.8460083008,65.9743220011,-2.8709538778,
-90.4784647624,69.207098643,-2.8433138529,
-93.9260965983,64.8215586344,-2.7915204366,
-80.3527526855,63.8955128988,-2.8444277445,
-78.5416056315,63.5744374593,0.0036328634,
-75.9069824219,62.6932131449,-1.2989807129,
-78.8886006673,65.0088946025,-1.4203974406,
-76.219909668,60.3855145772,-2.6739972432,
-74.3703816732,62.1696128845,-2.6015942891,
-83.1486612956,67.5449994405,-2.8951759338,
-77.9010314941,65.2480125427,1.376914978,
-75.2664082845,64.3667882284,1.376914978,
-73.619354248,63.2464459737,0.0743014018,
-74.5711364746,70.9826329549,-1.4254366557,
-75.8121643066,70.6820933024,-0.0471153259,
-76.7930908203,69.3079376221,-1.4254366557,
-77.5205586751,67.995203654,-2.8494669596,
-80.9570414225,69.9711151123,-2.8951759338,
-75.5520629883,69.6084772746,1.376914978,
-73.6449076335,67.4145189921,1.376914978,
-70.301940918,66.7043113708,1.376914978,
-67.6507059733,71.4599863688,1.376914978,
-67.9588216146,68.6424713135,1.376914978,
-76.532989502,68.2343215942,-0.0014063517,
-77.2604573568,66.9215876261,-1.4254366557,
-78.2480265299,66.6824696859,-0.0471153259,
-91.1352335612,75.4404271444,-2.8608474731,
-74.4801839193,59.0419171651,-2.6740036011,
-73.9564819336,56.9277000427,-2.7464065552,
-75.8735351563,55.0831260681,-2.7824516296,
-74.1508687337,41.4972190857,-2.7116737366,
-73.7528584798,39.8432782491,-1.3671023051,
-76.1978251139,44.1185162862,-2.7685991923,
-75.9854838053,39.3059755961,-0.0146942139,
-77.862101237,37.3189760844,-1.3400217692,
-83.4177652995,41.2206586202,-2.8156369527,
-81.1175333659,45.0467287699,-2.8333613078,
-79.9766642253,36.6515057882,-2.7316309611,
-72.3162536621,43.6884625753,-1.3200645447,
-71.9182434082,42.0345217387,0.0245068868,
-73.0262145996,46.6387290955,-1.3122278849,
-74.6751607259,47.6060854594,-2.7215614319,
-69.5148620605,43.818833669,1.376914978,
-67.5865783691,47.418229421,1.376914978,
-70.6999206543,48.5841840108,1.376914978,
-73.3381652832,47.9350547791,0.0323435465,
-75.6294759115,37.8562787374,1.376914978,
-66.3758341471,42.6593284607,1.376914978,
-66.6700134277,39.8464622498,1.376914978,
-72.9839070638,36.9571393331,1.376914978,
-68.9980875651,37.9155845642,1.376914978,
-77.5060933431,35.8692792257,0.0515874227,
-73.1785583496,58.9291852315,-1.2989870707,
-73.3816833496,59.7491823832,0.0743014018,
-72.6290384928,60.8005129496,0.0743014018,
-71.8780110677,61.8773460388,-2.5309257507,
-71.6732686361,61.0318463643,-1.2283121745,
-72.6548563639,56.8149681091,-1.3713900248,
-72.4259134928,59.9805157979,1.376914978,
-69.2992960612,58.8888918559,1.376914978,
-69.7313639323,56.5433413188,1.376914978,
-72.3342793783,55.5207481384,0.0018984477,
-81.2870279948,49.6489931742,-2.8510856628,
-78.3714294434,51.1318016052,-1.4417521159,
-76.4889628092,53.1258201599,-0.0324185689,
-74.2513326009,53.6761741638,-1.4074350993,
-87.3727925618,41.7899335225,-2.802675883,
-78.0162658691,49.6881370544,-0.0324185689,
-76.6792704264,50.0171063741,1.376914978,
-74.7968037923,52.0111249288,1.376914978,
-71.1269836426,62.954179128,-1.2283121745,
-70.9222412109,62.1086794535,0.0743014018,
-69.4310709635,63.3643137614,1.376914978,
-66.7156473796,59.9065615336,1.376914978,
-67.395324707,62.4851531982,1.376914978,
-97.7923278809,67.5454750061,-2.7241948446,
-106.7915039063,99.8296381632,3.0169143677,
-153.0971577962,52.5747032166,-0.9564119975,
-156.0370279948,52.1441917419,0.2703564962,
-161.169514974,59.0851796468,-2.1827583313,
-164.1276448568,55.5072593689,-2.1827583313,
-55.1911417643,243.9848022461,-2.9473559062,
-57.0872497559,240.1291707357,-2.9978561401,
-45.2942606608,232.3393859863,-3.1386604309,
-43.0130615234,231.6831766764,-1.516901652,
-50.0533752441,231.4076538086,-3.1375605265,
-44.9282226563,229.9940694173,0.1155560811,
-45.3741048177,226.6390177409,0.1155560811,
-43.9048258464,224.9730733236,-1.5158017476,
-46.4506022135,224.4152526855,-3.1471595764,
-50.7638346354,226.8385721842,-3.1471595764,
-40.6569010417,232.8723144531,0.1144561768,
-39.3919169108,232.7291463216,-3.1488634745,
-40.2159016927,232.3723449707,-1.5164057414,
-37.8488260905,234.0142211914,-3.1565246582,
-51.9895121257,235.5332234701,-3.0898094177,
-42.90721639,230.5175882975,1.7469139099,
-40.5510559082,231.7067260742,1.7469139099,
-42.9991353353,225.9202779134,1.7469139099,
-42.4474080404,228.1097412109,1.7469139099,
-38.5838114421,231.8129882813,-3.1443099976,
-39.407796224,231.4561869303,0.1160519918,
-39.0406901042,231.0399983724,-1.5118522644,
-37.5965067546,231.2868550618,-3.1395581563,
-36.2325134277,231.8290405273,-3.150177002,
-35.6767272949,233.6402486165,-3.1625900269,
-39.7429504395,230.7905680339,1.7469139099,
-37.6862792969,230.0976765951,-3.1331075033,
-35.6295776367,230.444925944,-3.1437263489,
-36.6264648438,229.4865519206,-3.1312103271,
-38.3064778646,230.2076212565,-1.5069974264,
-37.9393717448,229.7914326986,0.1209068298,
-39.0087381999,229.958190918,1.7469139099,
-32.4926045736,197.5794677734,-3.1852162679,
-31.2755228678,192.042582194,-3.1008389791,
-37.4122517904,199.7479960124,-3.1982777913,
-33.7629699707,189.2073872884,-3.0553410848,
-37.0699666341,190.646870931,-3.0728861491,
-39.502166748,195.6505940755,-3.1314455668,
-28.0284322103,198.4931640625,-3.2180048625,
-27.1817728678,188.8829345703,-3.109588623,
-23.6722106934,190.9390767415,-3.1738840739,
-23.3017883301,195.0124206543,-3.1979230245,
-28.2664286296,202.9488016764,-3.2525355021,
-32.1189575195,207.3276265462,-3.2776654561,
-35.6171366374,207.5840861003,-3.2763722738,
-38.6599833171,203.6644287109,-3.2561963399,
-31.8979899089,231.8884277344,-3.1903686523,
-34.0963338216,230.1966959635,-3.1669960022,
-31.8586527507,234.5351765951,-3.1795120239,
-33.940826416,235.1558329264,-3.1686553955,
-22.8593953451,238.5999654134,-1.5666834513,
-23.6675313314,239.5161844889,-1.5624516805,
-22.4553324382,238.1418558757,0.0637334188,
-23.2206013997,237.8741251628,1.6969146729,
-24.0716044108,239.9742940267,0.0679651896,
-24.0287373861,238.7903442383,1.6969146729,
-42.447652181,218.8537699382,-3.194615682,
-40.9662679036,221.6411743164,-1.5632578532,
-41.3408508301,213.6990356445,-3.2420717875,
-39.4969889323,219.9752197266,0.0680999756,
-37.0698038737,219.1536661784,0.0680999756,
-34.4237772624,219.0485636393,-3.2951202393,
-33.8847859701,216.0914713542,-3.2923240662,
-36.1118977865,219.9980672201,-1.6135101318,
-36.8932902018,212.7077941895,-3.2895278931,
-46.4627075195,219.96190389,-3.1471595764,
-48.9285380046,210.1663208008,-3.158270518,
-52.1687113444,213.3417256673,-3.1190554301,
-44.1116943359,210.1756998698,-3.2118530273,
-51.0044453939,217.9480183919,-3.1251818339,
-38.9822896322,221.7615865072,1.7469139099,
-39.5458780924,224.3747456868,1.7469139099,
-36.5551045736,220.940032959,1.7469139099,
-50.0641581217,204.0968729655,-3.1634114583,
-57.6525777181,210.8261413574,-3.1129290263,
-58.3550415039,205.4162597656,-3.128780365,
-54.0067952474,201.8623962402,-3.1400477091,
-42.7069803874,205.2648010254,-3.2391331991,
-46.4307861328,201.5626831055,-3.1968180339,
-59.9471944173,177.7543233236,-3.2174301147,
-59.7378438314,173.231068929,-3.2212905884,
-65.4118347168,170.6159362793,0.9762242635,
-65.3792724609,169.6278076172,-1.1244633993,
-63.2783915202,170.1916503906,-3.225151062,
-53.5450846354,182.5248819987,-3.1732927958,
-53.9066670736,186.9142456055,-3.144841512,
-63.2606608073,188.3111165365,-3.1386744181,
-59.5003560384,189.7531229655,-3.1568552653,
-49.2711486816,180.6255696615,-3.1330159505,
-54.6758728027,173.1154378255,-3.2212905884,
-50.6112874349,175.7393798828,-3.1771532694,
-33.1622823079,184.0390726725,-3.0140749613,
-31.0003662109,181.4846089681,-2.9936256409,
-35.2489420573,182.084564209,-3.0460116069,
-33.5282592773,179.5128377279,0.4806187948,
-34.6492513021,180.5471089681,-1.2892659505,
-31.9660339355,178.4958292643,-2.991973877,
-33.4866333008,178.4369913737,-1.2556775411,
-29.9930725098,183.3975423177,-1.257329305,
-28.0622355143,186.4232177734,0.4789670308,
-25.5764668783,186.518951416,-1.3073450724,
-39.471669515,183.8602498372,-3.0796000163,
-40.692006429,187.2542419434,-3.0652084351,
-29.4381408691,180.4676005046,0.4806187948,
-27.4078572591,181.1091918945,2.2169151306,
-25.4770202637,184.1348673503,2.2169151306,
-34.6076253255,179.4712626139,2.2169151306,
-35.7286173503,180.5055338542,0.4470303853,
-30.4038085938,177.4788208008,-1.2556775411,
-31.924407959,177.4199829102,0.4806187948,
-30.7739257813,175.6344197591,2.2169151306,
-27.1236063639,173.9507751465,2.2169151306,
-24.7232055664,176.4367675781,2.2169151306,
-35.5750630697,176.5386962891,2.2169151306,
-33.3035888672,173.7188618978,2.2169151306,
-43.2987874349,181.5275777181,-3.0927391052,
-36.6960550944,177.5729675293,-1.2722345988,
-38.7321573893,174.5986022949,-3.0095799764,
-42.1915283203,176.7359517415,-3.0601997375,
-45.6645406087,191.099416097,-3.1016286214,
-50.7781473796,191.192779541,-3.1278457642,
-36.5841267904,174.6819763184,0.4976501465,
-40.1253255208,170.4727783203,-2.9609845479,
-34.3126525879,171.8621419271,-1.2432785034,
-34.377553304,170.3494059245,-2.9793675741,
-38.042195638,169.0434163411,-2.959728241,
-45.363688151,171.446299235,-1.3344523112,
-43.055480957,170.3182169596,0.479569753,
-46.6750284831,173.6670227051,-3.1043370565,
-42.4125467936,169.1667582194,-2.9790649414,
-43.1946716309,169.0955708822,-1.2577756246,
-47.8110860189,171.3517354329,0.4028930664,
-45.5028788249,170.2236531576,2.2169151306,
-32.1531066895,171.9332987467,0.4759864807,
-33.3856201172,227.1916809082,-2.3194236755,
-34.165242513,226.6862284342,-3.1398696899,
-34.0856221517,227.9897155762,-2.3149846395,
-35.3062438965,227.9842325846,-3.1309916178,
-35.1169637044,227.1792399089,-3.1354306539,
-32.6856180827,226.3936360677,-2.331770579,
-33.0242411296,225.3882242839,-3.1600087484,
-33.9745788574,225.8824564616,-3.1522165934,
-31.5485331217,228.0964253743,-2.3672116597,
-33.4316101074,228.7438456217,-2.3384730021,
-31.5025431315,226.5442504883,-2.3560702006,
-28.9384358724,231.2188720703,-3.2065912882,
-29.2537027995,228.8797200521,-3.2119572957,
-26.7683308919,231.4496765137,-1.5738779704,
-27.8337198893,232.6576538086,0.064201355,
-29.9644877116,235.0735982259,0.064201355,
-31.0298665365,236.2815653483,-1.5576553345,
-24.6375630697,229.0337219238,-1.6422704061,
-26.0182189941,227.9025472005,-3.2803497314,
-26.838104248,232.8023885091,1.6969146729,
-23.5721842448,227.8257446289,-0.0041910807,
-23.0574951172,229.612101237,1.6969146729,
-24.1926472982,232.1727905273,1.6969146729,
-29.2509969076,236.1840515137,1.6969146729,
-27.1900024414,235.1208190918,1.6969146729,
-30.3299763997,225.1517232259,-3.2276802063,
-31.1417744954,223.9942220052,-3.254544576,
-32.6529642741,224.3813374837,-3.2111727397,
-27.1404825846,225.7267252604,-3.3072141012,
-24.9896952311,223.3609822591,-3.3702405294,
-21.5488993327,227.4621480306,-0.0041910807,
-19.047475179,227.5210367839,-3.3518981934,
-20.5909932454,228.3065287272,-1.678044637,
-18.1121927897,224.6204833984,-3.3791503906,
-20.9088643392,222.2726542155,-3.4064025879,
-30.479888916,221.6946207682,-3.2979164124,
-27.5173034668,220.4863789876,-3.3340784709,
-21.0342102051,229.2485046387,1.6969146729,
-16.1286824544,235.9590148926,-3.2335014343,
-14.4213155111,238.2032572428,-3.2333641052,
-16.0828653971,234.4066975911,-3.23985672,
-12.1536149979,238.3146565755,-3.2338294983,
-14.5843400955,233.3779703776,-3.3137931824,
-11.4083757401,233.9599405924,-3.3815116882,
-10.2454423904,236.1511535645,-3.3079032898,
-17.4824625651,236.8081461589,-2.4030990799,
-17.3917541504,233.7316691081,-3.2457466125,
-18.7118835449,235.2340901693,-3.2218132019,
-18.3157857259,236.2582804362,-2.3974876602,
-18.397837321,234.2084147135,-3.2337799072,
-11.6296180089,240.4083251953,0.0203107198,
-10.6755263011,239.3265686035,-1.6067593892,
-10.3354692459,240.8144480387,1.6469154358,
-11.2171223958,243.438583374,1.6469154358,
-15.4522396723,232.2029724121,-3.3439102173,
-17.0762837728,232.707244873,-3.2761917114,
-14.9907223384,230.0498962402,-3.3681373596,
-11.5377499262,228.2887776693,-3.4116287231,
-8.8233029048,231.023824056,-3.4551200867,
-19.8526306152,236.5319722493,-3.2071075439,
-19.7193806966,235.7095743815,-3.2115859985,
-19.0155436198,237.0561930339,-2.3872604569,
-20.8615519206,237.0062154134,-3.2026290894,
-20.2873128255,235.6838378906,-1.5739262899,
-21.1692911784,236.683787028,-1.5694478353,
-19.8463236491,235.1838684082,0.0592549642,
-20.3654581706,234.2815144857,1.6969146729,
-21.6102803548,237.1837666829,0.0637334188,
-22.3755493164,236.9160359701,1.6969146729,
-22.5344340007,234.1534932454,1.6969146729,
-23.6625467936,235.7880655924,1.6969146729,
-17.1316731771,229.2098083496,-3.3246459961,
-18.6751912435,229.995300293,-1.6507924398,
-17.7172953288,230.8396911621,0.0230611165,
-17.2003885905,232.1840515137,0.0230611165,
-17.6413777669,232.6840209961,-1.6265652974,
-10.697072347,223.7382609049,-3.4037322998,
-14.1726582845,221.7544352214,-3.3874931335,
-18.1582845052,231.3396606445,1.6969146729,
-19.5593973796,231.4372456868,1.6969146729,
-26.0919291178,242.264831543,0.0679651896,
-25.283803304,241.3486175537,-1.5609842936,
-28.5846455892,239.2891896566,1.6969146729,
-26.0447896322,240.2701466878,1.6969146729,
-26.4647318522,212.228515625,-3.3196245829,
-30.7490844727,212.3462320964,-3.2936172485,
-24.7220458984,216.4543151855,-3.3572896322,
-32.5079752604,220.7373657227,-3.2979164124,
-22.7744344076,207.1056111654,-3.3038101196,
-23.206258138,202.8445027669,-3.2526728312,
-18.1295979818,206.3190205892,-3.3124148051,
-15.2693074544,208.3135274251,-3.3353309631,
-13.9366760254,212.7488098145,-3.3727340698,
-20.3012491862,217.2727457682,-3.3934516907,
-16.0664672852,216.6956380208,-3.4017944336,
-36.4385681152,228.6803487142,-3.1311073303,
-36.6902872721,228.3753255208,-1.5051002502,
-37.1312764486,228.8752848307,0.1209068298,
-35.8082987467,227.3753967285,-1.5095392863,
-37.8466796875,227.7997843424,1.7469139099,
-35.3672993978,226.8754272461,0.1164677938,
-35.8864034017,225.973063151,1.7469139099,
-37.483795166,225.8974914551,1.7469139099,
-39.357035319,228.4665018717,1.7469139099,
-18.9425252279,189.8434448242,-3.1738840739,
-22.9912516276,184.2306009928,0.4306030273,
-16.6805216471,186.7690531413,-3.1579526265,
-22.891805013,181.8465169271,-1.3557090759,
-19.7054545085,183.1166178385,-3.1420211792,
-18.7335306803,196.2991333008,-3.2060305278,
-15.9795735677,193.494140625,-3.1979230245,
-18.400004069,199.6755777995,-3.2262496948,
-15.8881835938,200.4440917969,-3.2383613586,
-14.040415446,195.1844278971,-1.4256795247,
-14.2825520833,198.7579345703,0.346563975,
-14.3632609049,199.9490966797,-1.4458986918,
-16.049601237,202.8264261882,-3.2733891805,
-12.0534871419,195.4967041016,2.126914978,
-10.9987386068,198.9660441081,2.126914978,
-13.8789876302,192.8020833333,0.3546714783,
-13.0663757324,199.844930013,2.126914978,
-33.2381998698,222.5312703451,0.0653038025,
-32.721303304,223.8756408691,0.0653038025,
-34.1960957845,221.6868693034,-1.6163063049,
-33.162302653,224.3756103516,-1.5729344686,
-33.6791992188,223.0312398275,1.7469139099,
-35.0803019206,223.1288045247,1.7469139099,
-31.6635538737,167.5026041667,-3.0010312398,
-29.4391072591,169.0864969889,-1.2649421692,
-35.2596638997,164.4240620931,-2.9961916606,
-28.8846537272,166.1685384115,0.4759864807,
-32.4807637533,163.0899963379,-1.2601025899,
-39.5215352376,167.1424051921,-2.9765523275,
-39.4530029297,165.3698527018,-2.9913520813,
-26.8398234049,166.8043314616,2.2169151306,
-24.8944396973,169.8242085775,2.2169151306,
-36.6313273112,162.9294128418,0.48082606,
-34.5151977539,161.9537760417,2.2169151306,
-24.1411031087,162.1380818685,2.2169151306,
-25.6843566895,157.0585530599,2.2169151306,
-29.8630574544,157.6706237793,2.2169151306,
-65.900004069,158.295328776,-3.1054458618,
-66.8392130534,159.7029724121,-3.0319239299,
-62.9517618815,157.9145507813,-3.1789677938,
-65.9942423503,161.1689453125,0.9855041504,
-66.8862813314,161.1396179199,-1.0232098897,
-60.7882181803,159.9452107747,-3.1881395976,
-65.8528340658,156.8583577474,-1.0140380859,
-66.7449747721,156.8293558757,1.0681978861,
-67.6841837565,158.2369995117,-0.940516154,
-64.9296976725,155.934967041,0.9946759542,
-64.8987019857,154.9825744629,-1.0875600179,
-62.8735961914,155.5251871745,-3.16979599,
-65.8218383789,155.9059651693,3.0769119263,
-67.7312520345,159.6736450195,1.0681978861,
-69.0585327148,157.7150980632,3.0769119263,
-66.6827596029,154.924235026,3.0769119263,
-68.9802449544,155.3257242839,3.0769119263,
-55.8487040202,166.2516174316,-3.2065912882,
-53.1115112305,169.0108947754,-3.2158711751,
-70.4977315267,159.6266174316,3.0769119263,
-65.7106221517,152.511138916,-3.0926818848,
-66.6515401204,153.9715067546,-1.0104459127,
-62.7935994466,153.0830891927,-3.16979599,
-65.7596232096,154.0008443197,0.9946759542,
-66.55372111,150.9921468099,-3.0155677795,
-67.4946390788,152.4525146484,1.0717900594,
-67.4458211263,150.9628601074,-0.9333318075,
-64.6873677572,148.5475667318,0.9946759542,
-65.6128031413,149.5317789714,-1.0104459127,
-64.6540323893,147.5340677897,-1.085231781,
-62.4991861979,148.1122334798,-3.1651395162,
-60.5564168294,151.1580505371,-3.1674677531,
-65.5462646484,147.5049133301,3.0769119263,
-66.4717000326,148.4891255697,3.0769119263,
-66.5049031576,149.5024922689,1.0717900594,
-68.9002075195,152.8833414714,3.0769119263,
-66.3284403483,143.6815490723,-3.0064048767,
-67.2062886556,143.6528116862,-0.9264971415,
-65.4817606608,145.1008504232,-3.0894966125,
-67.2518412272,145.0429585775,1.0703188578,
-66.4051615397,146.4622599284,1.0703188578,
-65.5129292806,146.491414388,-1.0095888774,
-65.4050394694,142.3201395671,-0.9998118083,
-66.2828877767,142.291402181,1.0800959269,
-64.4925231934,141.2890116374,0.9970041911,
-64.4578552246,140.2291463216,-1.0819206238,
-62.2043355306,140.8333536784,-3.1608454386,
-62.4346822103,145.7081705729,-3.1628112793,
-60.1153259277,143.8619486491,-3.161828359,
-66.2481587728,141.231648763,3.0769119263,
-65.3356424967,140.2005208333,3.0769119263,
-68.6287841797,145.5050964355,3.0769119263,
-68.4404296875,140.5807393392,3.0769119263,
-69.8976542155,143.4927775065,3.0769119263,
-68.7075398763,147.908610026,3.0769119263,
-55.6893107096,159.4229329427,-3.1572214762,
-52.7691752116,162.6850280762,-3.16639328,
-66.1787618001,139.1120300293,-1.0031229655,
-65.300974528,139.1406555176,0.9979871114,
-61.2794392904,135.3845113118,-3.1428998311,
-59.1541849772,138.2804870605,-3.1513811747,
-70.1951293945,150.8424580892,3.0769119263,
-58.6235046387,131.6893310547,-3.1344184875,
-50.1829833984,169.3195495605,0.4028930664,
-50.1074829102,167.3819274902,-1.4018491109,
-47.8747762044,168.1914672852,2.2169151306,
-42.5517374674,167.9441121419,-1.2417195638,
-41.7696126302,168.0152994792,0.4956258138,
-40.961730957,167.420308431,0.4956258138,
-40.9359741211,166.7541300456,-1.2404632568,
-41.7438557943,167.3491210938,2.2169151306,
-42.7793884277,166.0879007975,2.2169151306,
-45.8199768066,165.8733520508,2.2169151306,
-40.8674418132,164.9815775553,-1.2552630107,
-40.8246663411,163.8752034505,0.48082606,
-41.9287312826,164.3865356445,2.2169151306,
-16.7497558594,140.2161254883,-3.1117897034,
-19.8866882324,136.5955403646,-3.1168619792,
-14.4686787923,143.8324686686,-3.1067174276,
-21.1018676758,138.9330749512,-1.3305155436,
-21.4996337891,148.4693908691,-1.3217264811,
-16.7126871745,147.4138183594,-3.1030006409,
-20.4078267415,150.9031677246,-3.0992838542,
-13.2062988281,136.6457519531,-3.1370519002,
-16.3432312012,133.0251668294,-3.142124176,
-6.3547974428,141.26953125,-3.136709849,
-8.3842163881,137.2478841146,-3.1417821248,
-8.8958028158,144.2837422689,-3.1269073486,
-20.9029846191,134.1649169922,0.4305686951,
-23.0133768717,135.8796691895,2.2169151306,
-21.6985168457,153.2375488281,0.4393577576,
-23.3412068685,150.5421040853,2.2169151306,
-26.6534932454,145.6330668132,2.2169151306,
-26.723429362,140.5069478353,2.2169151306,
-56.5015157064,152.5385538737,-3.1457214355,
-53.717956543,156.330678304,-3.1263033549,
-43.136332194,162.0279744466,2.2169151306,
-39.9161376953,160.5410054525,2.2169151306,
-55.0570983887,145.7475585938,-3.1424102783,
-53.354888916,149.9877827962,-3.123975118,
-51.9715474447,141.7892049154,-3.1329460144,
-53.9796244303,137.3507283529,-3.1428998311,
-31.4785461426,125.1568705241,-3.0313097636,
-34.9219868978,126.8399658203,-3.0116322835,
-26.7869262695,127.3831481934,-3.0794855754,
-34.3272298177,128.9241027832,0.4686304728,
-28.8978271484,129.1124776204,-1.3177159627,
-35.659769694,128.8778686523,-1.2734616597,
-30.6296183268,119.7383321126,-3.0091005961,
-34.1461486816,117.0527114868,-2.983437856,
-37.6131795247,121.1639251709,-3.0064366659,
-37.5400899251,125.5326410929,-3.0124219259,
-26.843363444,117.6630554199,-3.032699585,
-21.4162902832,121.0655390422,-3.0683937073,
-20.510925293,125.3670934041,-3.0929705302,
-35.0511271159,130.5617370605,2.2169151306,
-24.8009643555,129.2546183268,0.4305686951,
-26.9113566081,130.9693705241,2.2169151306,
-31.7321166992,132.4648640951,2.2169151306,
-34.4235534668,111.1329600016,-2.941541036,
-30.8936360677,106.7270253499,-2.9068323771,
-24.6626993815,112.8116251628,-2.972328186,
-25.7299092611,108.1501541138,-2.9119567871,
-38.5432942708,110.5205841064,-2.955376943,
-33.0198974609,101.0494206746,-2.8723360697,
-39.7919311523,100.3725916545,-2.8629760742,
-41.7854105632,105.4378204346,-2.9113082886,
-40.8178202311,119.6970850627,-3.0422770182,
-41.4705301921,114.9734954834,-3.0331141154,
-39.6104024251,127.5243097941,-3.0163434347,
-43.3815002441,124.9503300985,0.4678408305,
-40.8959655762,126.2632191976,-1.2742513021,
-45.9140014648,124.852297465,-1.3061701457,
-44.5627950033,122.7066777547,-3.0801811218,
-38.3248392741,128.7854003906,-1.2672691345,
-39.6573689779,128.7391662598,0.474822998,
-37.716196696,130.4692687988,2.2169151306,
-43.4284667969,126.1651865641,2.2169151306,
-40.9429321289,127.4780756632,0.474822998,
-53.3017171224,124.3725153605,-3.1148846944,
-51.2671305339,129.7393366496,-3.124651591,
-49.2808837891,121.117070516,-3.1051177979,
-48.5975036621,128.6295115153,0.4429041545,
-48.7485046387,132.5047581991,-1.3408737183,
-53.5772094727,133.0513407389,-3.1344184875,
-50.8346252441,117.0559844971,-3.1051177979,
-46.1119689941,129.9424006144,2.2169151306,
-1.7948203087,141.8327026367,-3.1597900391,
-5.5991516113,133.8966573079,-3.1681098938,
-0.9695943991,133.9760843913,-3.2103513082,
0.8053179582,137.8904825846,-3.2071037292,
-0.3223062754,145.1354370117,-3.1730677287,
-4.7218423287,146.998647054,-3.1499875387,
-4.9437255859,236.6890055339,-1.6843109131,
-7.8132727941,236.0813191732,-0.0537630717,
-2.3751526276,235.8122049967,-3.375898997,
-4.1377156973,231.2564900716,-3.4460296631,
-8.7673536936,237.1630655924,-1.6808331807,
-3.0282592773,238.3784383138,0.0163675944,
-4.7188213666,239.1096598307,1.6469154358,
-7.5883685748,238.5019734701,1.6469154358,
1.0613713463,241.814549764,-3.3608182271,
-0.4230953654,242.7758992513,-3.2709070841,
0.204203705,240.6269836426,-3.3346392314,
-1.2802630067,241.5883331299,-3.2447280884,
3.407471021,243.2851104736,-3.3869972229,
0.7436423699,237.5256449382,-3.3956794739,
4.1880189975,235.7200419108,-3.4855906169,
5.8237713973,243.1799468994,-3.4248250326,
6.8083803654,239.3686777751,-3.4885571798,
-1.9947813352,241.0678151449,0.0163675944,
-2.2759193579,242.0531717936,-3.2447280884,
-2.8767697016,242.067759196,-1.614180247,
-1.4355570475,227.5870463053,-3.454788208,
5.9223227104,231.4989115397,-3.4849510193,
3.2646384239,227.9456380208,-3.4739290873,
-3.6853434245,241.7990366618,1.6469154358,
5.4528096517,247.0081380208,-1.7196451823,
4.6391092936,247.9314066569,-0.1129188538,
7.0802103678,245.161605835,-1.7543665568,
5.7605489095,248.5148468018,1.4969139099,
8.8514099121,245.0822041829,1.4969139099,
9.1141866048,247.4327952067,1.4969139099,
7.8939107259,244.2383422852,-0.1476402283,
7.6507263184,249.0189056396,1.4969139099,
4.0786032279,249.9836374919,1.4969139099,
-5.2804666758,222.8038635254,-3.4559822083,
24.8930053711,190.3079223633,-3.3612658183,
19.528137207,191.5922241211,-3.3362617493,
27.4862467448,193.8900858561,-3.3956782023,
16.5163370768,196.1558024089,-3.3595161438,
20.7826334635,200.0739542643,-3.3827705383,
26.3876749674,199.0925394694,-3.3939285278,
26.9942423503,185.3421020508,-3.3629798889,
19.9476928711,179.7554829915,-3.291914622,
24.3532918294,180.9405212402,-3.3274294535,
17.0487467448,187.8210449219,-3.3130073547,
17.3988037109,183.0616963704,-3.3024609884,
35.3492431641,187.6368611654,-3.8391888936,
32.0938517253,184.0690714518,-3.6135686239,
32.8428751628,192.4920552572,-3.6230125427,
-56.303314209,64.7939135234,-2.8298416138,
-62.8647969564,70.6815134684,-2.831161499,
-62.1866149902,68.1025238037,-2.7738494873,
-60.1784362793,65.206111908,-2.7528559367,
-47.9161783854,66.1142361959,-2.8811480204,
-53.3217468262,59.9778315226,-2.8404808044,
-48.6666056315,60.6286799113,-2.8721135457,
-5.9637041092,245.5675506592,0.0132420858,
-5.5227150917,245.0675811768,-1.6204312642,
-5.8902994792,244.2988891602,1.6469154358,
-7.0968119303,243.6791687012,1.6469154358,
-5.4633687337,206.8881429036,-3.2959912618,
-6.3453469276,204.4533793132,-3.2665023804,
-7.4614971479,208.2284749349,-3.3210741679,
-7.3161519368,204.6673787435,0.3115361532,
-8.0209147135,205.1829528809,0.3115361532,
-7.2764078776,204.1049906413,-1.4762064616,
-9.0482381185,206.3092854818,-3.3192214966,
-8.685933431,205.136138916,-1.5038426717,
-1.163635095,207.1909077962,-3.2969907125,
-5.2175495625,203.2577514648,-3.2324523926,
-2.5013629595,202.7717488607,-3.2283248901,
0.670573314,204.2701416016,-3.2633743286,
0.8214722474,210.9873962402,-3.3239262899,
-8.5722657839,212.4917602539,-3.3584772746,
-4.5890300274,214.9479166667,-3.3603299459,
-7.9811706543,204.6205647786,2.126914978,
-7.9759419759,201.1684366862,-3.2127024333,
-7.5475769043,201.5242614746,-1.4357426961,
-8.4043070475,200.8126118978,-1.4313735962,
-8.4278157552,201.1451212565,0.345586141,
-7.9994506836,201.5009460449,0.345586141,
-7.0200602214,200.8285420736,-3.2083333333,
-7.1426900228,202.2125854492,0.345586141,
-6.1016236146,202.244354248,-3.2234853109,
-5.5506287416,201.2161356608,-3.2127024333,
-7.1896769206,202.8775939941,-1.4421564738,
-8.3342183431,199.8212687174,-1.4270044963,
-7.4018452962,199.8138834635,-3.2039642334,
-9.1284790039,200.9284973145,2.126914978,
-8.2876383464,199.1624348958,0.3499552409,
-9.0583902995,199.9371541341,2.126914978,
-7.5945638021,202.1892700195,2.126914978,
-8.5769856771,202.6730957031,2.126914978,
-9.6825358073,201.7681477865,2.126914978,
-4.5095623334,201.2479044596,0.345586141,
-2.3443706036,201.7901204427,0.345586141,
-5.0466207663,200.8529256185,-1.4313735962,
-0.7162373066,201.9373575846,-1.4380289714,
-8.8768615723,203.8769938151,2.126914978,
-3.9318237305,199.8997090658,2.126914978,
-1.7666320006,200.4419250488,2.126914978,
-6.4694722493,199.8064982096,-1.4270044963,
-7.3552652995,199.1550496419,0.3499552409,
-5.3546752135,198.8532816569,2.126914978,
-9.4073689779,193.3967488607,2.126914978,
-5.5812784036,195.7896016439,2.126914978,
21.6260986328,163.1536153158,-3.4277687073,
19.1580200195,159.4129943848,-3.4278526306,
18.6053466797,167.5691426595,-3.3581504822,
15.9622395833,166.2082010905,0.3169059753,
16.3122965495,161.4488423665,0.3169059753,
15.7872111003,168.5878804525,-1.4858551025,
16.4873250326,159.0691630046,-1.5554733276,
27.0553385417,163.4774678548,-3.5243225098,
31.394124349,157.1444295247,-3.599038442,
30.6642862956,160.8805135091,-3.5847981771,
27.8533121745,153.9626057943,-3.5567385356,
21.8692626953,154.9951578776,-3.5083147685,
20.6291503906,171.401957194,-3.3509025574,
25.3681844076,172.6522013346,-3.4547042847,
28.7736206055,169.1432393392,-3.558506012,
12.662902832,167.1618143717,2.126914978,
12.4660948118,159.275777181,2.126914978,
8.9917295774,162.6090698242,2.126914978,
2.5400290489,202.2318318685,-1.4403152466,
4.0838320255,203.5829874674,-3.2566935221,
4.1681621075,202.3790690104,0.3432998657,
3.524261713,200.4238891602,2.126914978,
0.8457339605,198.7812194824,2.126914978,
11.4359232585,240.4207305908,-3.4626528422,
13.3327636719,236.2217000326,-3.5053838094,
10.4395244916,230.9485168457,-3.5306485494,
12.2225138346,244.1525980632,-3.4367485046,
10.6226094564,245.0028025309,-1.7921943665,
20.2430826823,239.8235168457,-3.5468978882,
17.1466267904,235.4922180176,-3.5312563578,
11.375406901,248.6725616455,1.4969139099,
9.6651102702,244.1589406331,-0.1476402283,
53.7180582682,235.6717529297,-3.8076985677,
51.8554077148,232.8954060872,-3.8831418355,
53.7396647135,240.8727823893,-3.7168680827,
50.6325276693,234.6900431315,-0.3625500997,
48.4168294271,237.479309082,-2.1150805155,
50.4061686198,231.7147115072,-2.1228459676,
50.3827107747,244.6654663086,-3.7014808655,
46.6961669922,241.0730082194,-3.7845458984,
56.0044555664,233.9580485026,-3.8434410095,
55.5910441081,232.3623962402,-2.1585884094,
54.6087849935,231.2176411947,-2.2136764526,
53.1595458984,230.0369466146,-3.9739723206,
59.0791829427,236.0805155436,-3.7679977417,
57.0236206055,243.2485707601,-3.7322552999,
60.0767415365,240.1700083415,-3.7476425171,
56.6545613607,232.4433288574,-0.3982925415,
55.6723022461,231.2985738118,1.3069152832,
54.6900431315,230.1538187663,-0.4533805847,
48.1904703776,234.5039774577,1.3069152832,
45.9747721354,237.2932434082,-0.4456151326,
51.7103068034,228.8562520345,-0.4533805847,
53.2408040365,228.9731241862,-2.2136764526,
53.9465942383,226.734975179,1.3069152832,
46.0984700521,229.5552266439,1.3069152832,
50.5504557292,224.6446838379,1.3069152832,
64.1128133138,231.4379882813,-3.8914972941,
63.2152913411,229.7340698242,-2.1862894694,
65.0103352865,233.1419067383,-2.1508471171,
65.377726237,231.5343933105,-0.4456392924,
64.4802042643,229.8304748535,-0.4456392924,
61.4371337891,232.3037821452,-3.8441505432,
60.6209106445,229.536336263,-2.1743850708,
59.210144043,230.4985351563,-3.8795928955,
64.3458658854,236.049235026,-2.0831451416,
62.0375773112,235.3075154622,-3.7883529663,
67.1937255859,234.6305948893,1.3069152832,
64.0487874349,237.3490498861,-0.3779373169,
66.5292561849,237.5379231771,1.3069152832,
64.0318603516,227.3665568034,1.3069152832,
59.2914428711,229.4350077311,-0.4337348938,
58.9336751302,227.1156311035,1.3069152832,
61.0797119141,224.8494466146,1.3069152832,
69.7544759115,231.3619181315,1.3069152832,
67.4901326497,225.8017985026,1.3069152832,
57.7993774414,231.4607340495,-0.3982925415,
57.8806762695,230.3972066243,-2.1389427185,
56.8171183268,230.3159790039,1.3069152832,
56.5406494141,226.9330749512,1.3069152832,
40.5627644857,248.5387929281,-3.6724052429,
42.3876139323,179.0528055827,-4.0201708476,
44.2422485352,183.3007507324,-4.0561294556,
45.3781738281,174.8593241374,-3.9628893534,
47.5380452474,182.6144714355,-0.4750035604,
52.3981730143,180.3170166016,-0.4750035604,
49.3727213542,174.5116678874,-3.9862581889,
54.3426106771,178.3809000651,-4.0387763977,
47.342569987,185.2739562988,-2.265566508,
57.0628255208,180.6790466309,-2.2608032227,
36.419535319,177.307240804,-3.8714815776,
31.9931030273,179.4645996094,-3.6818199158,
41.021097819,187.4374389648,-4.0647735596,
41.6492919922,170.5321553548,-3.8142000834,
35.9864501953,172.2937927246,-3.7141482035,
49.7679239909,184.1152954102,1.3069152832,
54.6280517578,181.8178405762,1.3069152832,
44.0082600911,164.6668701172,-3.7853368123,
40.7827351888,166.2524820964,-3.7190335592,
42.1185302734,159.3603719076,-3.7114931742,
38.1713053385,163.8915506999,-2.5890858968,
37.6201578776,161.6072184245,-2.6152941386,
38.3418579102,158.6616516113,-3.6713981628,
48.8320515951,164.4973856608,-3.8528086344,
52.7051798503,170.2085469564,-3.9517466227,
52.6678670247,166.1070454915,-3.9006830851,
45.3985799154,157.0532328288,-3.7937761943,
49.5006713867,159.8293151855,-3.8612480164,
37.3590901693,165.4325154622,-1.5329818726,
35.9851277669,164.7080485026,-0.5030860901,
36.2567952474,160.8638509115,-1.5591901143,
35.433980306,162.4237162272,-0.5030860901,
35.1729125977,166.249013265,-2.562877655,
32.9337158203,168.8306172689,-3.5927734375,
33.7989501953,165.5245463053,-1.5329818726,
67.3925577799,155.4856058757,-4.0321756999,
69.3385823568,154.3344523112,-2.7033729659,
65.8623453776,158.8591918945,-4.0544891357,
70.6737467448,155.3602193197,-1.3632914436,
74.6792399089,158.4375101725,-2.7573979801,
69.0805867513,161.5793965658,-4.1197929382,
74.6162923177,161.2831013997,-4.1515045166,
64.7222290039,153.4340718587,-3.9920628866,
66.6682535807,152.2829182943,-2.6632601526,
60.6892293294,152.9954528809,-3.9750531514,
57.1748860677,156.8657023112,-3.9385375977,
59.6776733398,160.6779073079,-3.9778607686,
70.5971272786,153.4379679362,0.0069121998,
67.1633504232,150.876373291,0.0069121998,
69.7570597331,151.0056559245,0.0069121998,
65.3330891927,151.2571512858,-1.3231786303,
76.3126017253,153.4738260905,0.0069121998,
77.3909301758,157.3434041341,0.0069121998,
73.5242919922,152.6456807454,0.0069121998,
77.3495686849,160.4890340169,-1.3871943367,
17.6359863281,174.8003641764,-3.2813682556,
15.4371541341,173.3472290039,-1.4786071777,
26.7806193034,177.2356465658,-3.4206848145,
15.262125651,175.7268981934,0.3241539001,
13.1171773275,174.2944641113,2.126914978,
10.1678975423,170.4887288411,2.126914978,
10.7604982058,224.0464375814,-3.4552268982,
5.7474062045,223.8781738281,-3.461411794,
13.5754292806,219.3199564616,-3.4223187764,
6.2073568503,216.3081665039,-3.3679936727,
11.0850423177,215.4147745768,-3.397673289,
3.6846518119,220.0450846354,-3.398824056,
12.7949322065,227.5635070801,-3.5134417216,
18.2157185872,218.4098307292,-3.4320882161,
20.5792439779,222.0816548665,-3.4361457825,
20.061319987,227.0903930664,-3.493637085,
17.1155395508,229.2255452474,-3.5399538676,
58.8274739583,171.2259114583,-4.0042648315,
60.1596679688,175.8910624186,-4.0426572164,
36.8855183919,155.7420654297,-3.659430186,
34.0706176758,161.6803487142,-1.5591901143,
33.2478027344,163.2402140299,-2.5890858968,
29.9629720052,150.7708231608,-3.5854466756,
39.0570068359,150.1348978678,-3.627746582,
35.6752726237,148.3454793294,-3.5960629781,
19.2068074544,129.0555801392,-3.3129361471,
18.0844523112,128.3357696533,-1.704498291,
19.5548095703,131.9574076335,-3.4017359416,
17.6861165365,128.9573745728,-0.1294937134,
16.1654666265,128.8591512044,-0.1294937134,
15.5476277669,132.4654744466,-3.3626454671,
13.6789757411,129.465423584,-3.2752494812,
15.0431524913,128.1393229167,-1.7059020996,
20.7274983724,129.1537857056,-1.7365277608,
19.6051432292,128.4339752197,-0.1280899048,
22.7356770833,130.4417215983,-1.871412913,
21.961324056,132.6237386068,-3.5352172852,
20.571472168,126.9563751221,1.4469146729,
23.621500651,131.0098470052,-0.262975057,
24.2516276042,130.0270996094,1.4469146729,
23.209777832,127.261563619,1.4469146729,
16.5638024012,128.237546285,1.4469146729,
15.4334112803,125.9285354614,1.4469146729,
16.7979536057,123.8295160929,1.4469146729,
19.2930094401,124.0393218994,1.4469146729,
23.0549316406,136.8039449056,-3.5905838013,
25.1374511719,130.5952250163,-0.262975057,
27.1358032227,136.0488077799,-3.6366691589,
27.3685506185,129.8470662435,-3.6596857707,
25.767578125,129.6124776204,-1.9613304138,
29.1591186523,131.6885681152,-3.6712201436,
12.6836853027,135.9919230143,-3.4013506571,
20.0726318359,140.440226237,-3.4958076477,
14.5943908691,139.6882629395,-3.4471168518,
11.8287865321,128.2787577311,-3.2658971151,
13.1929632823,126.9526570638,-1.6965497335,
8.6425681114,127.9488499959,-3.2565447489,
7.2475178242,134.9281717936,-3.3094673157,
5.8029277325,130.351987203,-3.2614097595,
12.4650882085,126.4858194987,-0.1201413472,
13.1848862966,125.363474528,1.4469146729,
19.3735758464,152.2716573079,-3.4777158101,
16.8373616536,154.3098144531,-1.5872446696,
22.1963500977,147.5132344564,-3.4958076477,
17.0123697917,151.9301452637,0.2851346334,
14.5275878906,149.3592732747,0.2851346334,
19.2928263346,144.8171691895,-3.4471168518,
11.8677978516,149.1680704753,-1.4892196655,
13.9852701823,147.0047200521,-3.3310000102,
26.8016967773,147.0449523926,-3.5551147461,
14.3525797526,151.7389424642,2.126914978,
10.1563413938,154.3252258301,2.126914978,
40.5756022135,120.3829498291,-3.6684125264,
39.6947021484,115.7386830648,-3.7045529683,
44.6115519206,120.2277094523,-3.7109451294,
43.7306518555,115.583442688,-3.7470855713,
38.1818644206,122.8040211995,-3.6176261902,
34.0857950846,120.0952097575,-3.6136995951,
36.9300130208,114.7577870687,-3.693833669,
33.71484375,116.693242391,-3.6537666321,
38.8026123047,126.9503453573,-3.6507110596,
48.1292317708,123.3968963623,-3.6270662944,
48.9097086589,127.4940134684,-3.5847981771,
46.883992513,130.9229303996,-3.6176185608,
42.6883138021,131.127377828,-3.6504389445,
30.3487345378,139.2898254395,-3.6012001038,
30.0934041341,143.9536234538,-3.5657310486,
45.9997965495,152.1673380534,-3.8359642029,
43.5278727214,148.1239420573,-3.7219975789,
28.7183837891,127.7419026693,-3.5975774129,
27.1174112956,127.5073140462,-1.8992220561,
31.4294230143,126.2909342448,-3.5972124736,
34.7041422526,128.1801757813,-3.6471494039,
33.7836710612,131.4726460775,-3.6590487162,
27.837117513,126.3848978678,-0.2008666992,
26.9647623698,125.8252741496,1.4469146729,
24.5730794271,125.1649017334,1.4469146729,
11.7439985275,122.7670694987,-3.2534039815,
13.1768093109,123.7742919922,-1.688554128,
8.5658570925,124.0263442993,-3.2520472209,
12.4570112228,124.8966369629,-0.1201413472,
13.0954694748,120.6598307292,-3.2674484253,
14.5282802582,121.6670532227,-1.7025985718,
11.4134931564,116.8039754232,-3.1973584493,
9.3292034467,114.9810663859,-3.1173261007,
12.9881693522,118.5078430176,-3.263885498,
6.1909789642,116.6385447184,-3.0869941711,
5.2044273615,121.8727162679,-3.1692326864,
15.9008995692,121.15721639,1.4469146729,
15.1599531174,120.6821594238,-0.134185791,
-7.0699562232,129.4307047526,-3.1388028463,
-10.8128151894,127.0031509399,-3.0929705302,
-15.1803894043,128.4363479614,-3.1175473531,
-2.9621883631,124.9533665975,-3.0933647156,
1.0256656408,125.397567749,-3.1553179423,
1.5474549929,129.9543329875,-3.2429974874,
-4.048288703,120.9934768677,-3.0266710917,
-9.3214923541,122.1148351034,-3.0475323995,
13.1793114344,114.974009196,-3.157380422,
12.7839053472,113.751739502,-3.0773480733,
10.2593080203,112.6140314738,-3.037293752,
15.0352376302,115.6823018392,-3.2239074707,
15.3339029948,117.5345967611,-3.2801361084,
17.0105183919,114.5183690389,-3.2173144023,
14.433980306,112.1024958293,-3.0952517192,
16.8046671549,112.160832723,-3.1686909993,
19.0742797852,119.7522455851,-3.3393885295,
19.5696411133,116.9461619059,-3.2950439453,
16.8138224284,119.17674764,-3.3178876241,
26.8142293294,119.4784266154,-3.4685071309,
25.4363810221,116.9647369385,-3.3287734985,
25.9435628255,122.0680669149,-3.5014584859,
22.1759236654,122.0429611206,-0.1556866964,
23.6952514648,122.1437098185,-0.1556866964,
20.6564127604,121.9425201416,-3.3608894348,
21.7788492839,122.6621627808,-1.7582880656,
24.8175048828,122.8636601766,-1.8034680684,
22.4193115234,115.9279022217,-3.2722002665,
29.6925048828,118.1763636271,-3.5638961792,
27.429300944,115.0950469971,-1.6628392537,
29.437113444,116.3823165894,-1.8025728861,
30.8018595378,123.5787124634,-3.5968475342,
27.9381713867,123.3476409912,-3.5466384888,
31.6855265299,120.9970753988,-3.6470565796,
26.3068440755,114.3754043579,0.0153236389,
26.7346394857,113.707921346,1.6369132996,
29.4791666667,113.8463083903,1.6369132996,
31.0591837565,115.8010609945,1.6369132996,
30.3224690755,116.9499435425,-0.1244099935,
23.2981770833,122.7629114787,1.4469146729,
27.6844685872,124.7028579712,-0.2008666992,
26.812113444,124.1432342529,-1.8486480713,
19.1369018555,121.8420791626,-1.7582880656,
20.2593383789,122.5617218018,-0.1556866964,
17.2735188802,120.6473795573,-1.7367871602,
16.5325724284,120.1723225911,-0.134185791,
52.0473429362,122.3973032633,-3.6107241313,
54.2552693685,123.9372075399,-1.9568913778,
53.260172526,125.2291895549,-0.3246498108,
53.3500366211,127.2195383708,-0.3246498108,
54.4349975586,127.9179051717,-1.936214447,
52.9176839193,128.4847691854,-3.5477790833,
53.1063842773,119.050877889,-3.6374613444,
56.0639444987,121.5888926188,-0.3453267415,
56.1278889974,119.5344492594,-3.6158701579,
56.8775227865,120.5325597127,-1.9775683085,
47.5649210612,114.163752238,-3.7372042338,
52.4278767904,115.7539825439,-3.6907819112,
54.3451334635,125.9275563558,1.2869148254,
56.7620239258,125.7554066976,1.2869148254,
57.7391967773,120.7754669189,1.2869148254,
58.3474121094,122.9516321818,1.2869148254,
6.7635293802,143.6944071452,-3.2635739644,
11.1547953288,143.8740030924,-3.3310000102,
4.2744039297,146.4427083333,-3.1961479187,
6.5481975476,148.7856547038,-1.4217936198,
4.766957442,138.4449157715,-3.2878074646,
3.8883872827,148.5944417318,0.3525606791,
5.0117492278,151.5631408691,2.126914978,
50.9183959961,151.6603190104,-3.9329325358,
51.9272054036,147.0575154622,-3.8406295776,
49.3014322917,145.5795593262,-0.4081408183,
45.820699056,146.1389668783,-2.0492273966,
50.575764974,143.6001586914,-2.0708910624,
52.7276611328,156.4213765462,-3.9181213379,
59.9119669596,149.1324666341,-3.9763412476,
55.8626912435,146.2622578939,-3.8623339335,
47.0950317383,144.1595662435,1.346912384,
43.6142985026,144.7189737956,-0.2941741943,
60.1487426758,141.5321858724,-3.8224118551,
60.3380533854,138.5689798991,-3.7471923828,
55.9810791016,142.1586405436,-3.7553456624,
57.640218099,138.5491739909,-0.3158378601,
55.5115152995,139.2071533203,-1.9785881042,
